102.344933712	37.8111616162	8.17824649811
102.353929924	37.8111616162	8.249584198
102.362926136	37.8111616162	8.38342857361
102.371922348	37.8111616162	8.55910587311
102.380918561	37.8111616162	8.96641921997
102.389914773	37.8111616162	9.12284851074
102.398910985	37.8111616162	9.52799415588
102.407907197	37.8111616162	9.59212684631
102.416903409	37.8111616162	9.5513420105
102.425899621	37.8111616162	9.16273021698
102.434895833	37.8111616162	9.15708446503
102.443892045	37.8111616162	8.60584831238
102.452888258	37.8111616162	8.27049064636
102.46188447	37.8111616162	9.6043844223
102.470880682	37.8111616162	9.47324943542
102.479876894	37.8111616162	9.08859920502
102.488873106	37.8111616162	9.04453468323
102.497869318	37.8111616162	9.68326091766
102.50686553	37.8111616162	10.1339960098
102.515861742	37.8111616162	10.426194191
102.524857955	37.8111616162	11.0707473755
102.533854167	37.8111616162	11.8490619659
102.542850379	37.8111616162	12.4230823517
99.6280776515	37.8021717172	-0.213338568807
99.6370738636	37.8021717172	-0.751939177513
99.6460700758	37.8021717172	-1.0558655262
99.6550662879	37.8021717172	-1.3317759037
99.6640625	37.8021717172	-1.90162193775
99.6730587121	37.8021717172	-1.73095476627
99.6820549242	37.8021717172	-0.928124368191
99.6910511364	37.8021717172	0.0756521970034
99.7000473485	37.8021717172	-0.215248763561
99.7090435606	37.8021717172	-0.729247927666
99.7180397727	37.8021717172	-0.372676342726
99.7270359848	37.8021717172	-0.864332854748
99.736032197	37.8021717172	-2.06091022491
99.7450284091	37.8021717172	-1.51896548271
99.7540246212	37.8021717172	-0.996140599251
99.7630208333	37.8021717172	-1.28586220741
99.7720170455	37.8021717172	-0.339659124613
99.7810132576	37.8021717172	-0.937285542488
99.7900094697	37.8021717172	-1.03517496586
99.7990056818	37.8021717172	-0.264977902174
99.8080018939	37.8021717172	-0.0524904541671
99.8169981061	37.8021717172	0.271446555853
99.8259943182	37.8021717172	-0.884634017944
99.8349905303	37.8021717172	-0.298579186201
99.8439867424	37.8021717172	-0.801734447479
99.8529829545	37.8021717172	-0.379873722792
99.8619791667	37.8021717172	-0.956802427769
99.8709753788	37.8021717172	-0.846207737923
99.8799715909	37.8021717172	-0.417075693607
99.888967803	37.8021717172	-0.691767513752
99.8979640152	37.8021717172	-0.502817928791
99.9069602273	37.8021717172	-0.980468153954
99.9159564394	37.8021717172	-0.975062787533
99.9249526515	37.8021717172	-0.922664642334
99.9339488636	37.8021717172	-1.12241899967
99.9429450758	37.8021717172	-0.350190907717
99.9519412879	37.8021717172	0.632714211941
99.9609375	37.8021717172	-0.20026396215
99.9699337121	37.8021717172	-0.57053154707
99.9789299242	37.8021717172	-0.315173059702
99.9879261364	37.8021717172	-0.15689817071
99.9969223485	37.8021717172	-1.16256332397
100.005918561	37.8021717172	-0.394389390945
100.014914773	37.8021717172	0.0129862604663
100.023910985	37.8021717172	-1.01315224171
100.032907197	37.8021717172	-0.884524524212
100.041903409	37.8021717172	-0.279841125011
100.050899621	37.8021717172	0.0392597615719
100.059895833	37.8021717172	-0.731770038605
100.068892045	37.8021717172	-0.128107622266
100.077888258	37.8021717172	-1.02434849739
100.08688447	37.8021717172	-0.48185300827
100.095880682	37.8021717172	0.741409778595
100.104876894	37.8021717172	-0.377778202295
100.113873106	37.8021717172	0.0913846194744
100.122869318	37.8021717172	4.62338972092
100.13186553	37.8021717172	0.866814255714
100.140861742	37.8021717172	0.905218720436
100.149857955	37.8021717172	0.0999619439244
100.158854167	37.8021717172	1.29224526882
100.167850379	37.8021717172	1.36575317383
100.176846591	37.8021717172	2.62135744095
100.185842803	37.8021717172	1.16513431072
100.194839015	37.8021717172	1.53718042374
100.203835227	37.8021717172	2.00260353088
100.212831439	37.8021717172	3.61138725281
100.221827652	37.8021717172	2.93167066574
100.230823864	37.8021717172	2.29036164284
100.239820076	37.8021717172	1.97631180286
100.248816288	37.8021717172	-0.17109040916
100.2578125	37.8021717172	-0.14479547739
100.266808712	37.8021717172	-0.399939775467
100.275804924	37.8021717172	-0.440176874399
100.284801136	37.8021717172	0.411967009306
100.293797348	37.8021717172	0.415993601084
100.302793561	37.8021717172	0.706539213657
100.311789773	37.8021717172	-0.0703910142183
100.320785985	37.8021717172	0.0437374189496
100.329782197	37.8021717172	0.563859641552
100.338778409	37.8021717172	0.768999159336
100.347774621	37.8021717172	0.872191131115
100.356770833	37.8021717172	0.576522111893
100.365767045	37.8021717172	0.271030694246
100.374763258	37.8021717172	0.573898673058
100.38375947	37.8021717172	0.989908337593
100.392755682	37.8021717172	-0.194886729121
100.401751894	37.8021717172	0.482171267271
100.410748106	37.8021717172	0.413390308619
100.419744318	37.8021717172	1.4095993042
100.42874053	37.8021717172	1.79315447807
100.437736742	37.8021717172	0.758017003536
100.446732955	37.8021717172	0.74920886755
100.455729167	37.8021717172	3.62143683434
100.464725379	37.8021717172	2.21224498749
100.473721591	37.8021717172	2.22595643997
100.482717803	37.8021717172	1.56075680256
100.491714015	37.8021717172	2.10051941872
100.500710227	37.8021717172	1.99172711372
100.509706439	37.8021717172	1.61759340763
100.518702652	37.8021717172	1.73419368267
100.527698864	37.8021717172	1.67694652081
100.536695076	37.8021717172	1.62743127346
100.545691288	37.8021717172	1.45917057991
100.5546875	37.8021717172	2.69654965401
100.563683712	37.8021717172	2.37096571922
100.572679924	37.8021717172	2.79156470299
100.581676136	37.8021717172	2.94786691666
100.590672348	37.8021717172	3.45629477501
100.599668561	37.8021717172	3.52038383484
100.608664773	37.8021717172	3.02576613426
100.617660985	37.8021717172	3.09626102448
100.626657197	37.8021717172	2.60985827446
100.635653409	37.8021717172	3.93599772453
100.644649621	37.8021717172	4.42495679855
100.653645833	37.8021717172	4.90067768097
100.662642045	37.8021717172	4.52172374725
100.671638258	37.8021717172	4.69333219528
100.68063447	37.8021717172	4.45036363602
100.689630682	37.8021717172	4.31310892105
100.698626894	37.8021717172	4.48900508881
100.707623106	37.8021717172	5.81721925735
100.716619318	37.8021717172	6.09024715424
100.72561553	37.8021717172	5.43749284744
100.734611742	37.8021717172	5.65055513382
100.743607955	37.8021717172	6.65914678574
100.752604167	37.8021717172	6.3937869072
100.761600379	37.8021717172	7.84680604935
100.770596591	37.8021717172	8.03419589996
100.779592803	37.8021717172	9.19740962982
100.788589015	37.8021717172	8.91803073883
100.797585227	37.8021717172	8.55505847931
100.806581439	37.8021717172	8.61752128601
100.815577652	37.8021717172	8.35281658173
100.824573864	37.8021717172	9.12413406372
100.833570076	37.8021717172	9.52835083008
100.842566288	37.8021717172	9.69230556488
100.8515625	37.8021717172	9.94781208038
100.860558712	37.8021717172	10.4485177994
100.869554924	37.8021717172	10.6270742416
100.878551136	37.8021717172	11.3020048141
100.887547348	37.8021717172	10.9695091248
100.896543561	37.8021717172	12.5359172821
100.905539773	37.8021717172	13.2766590118
100.914535985	37.8021717172	14.0655193329
100.923532197	37.8021717172	15.2651576996
100.932528409	37.8021717172	15.3183937073
100.941524621	37.8021717172	17.2500305176
100.950520833	37.8021717172	19.390663147
100.959517045	37.8021717172	19.1468639374
100.968513258	37.8021717172	19.6612129211
100.97750947	37.8021717172	20.8227291107
100.986505682	37.8021717172	21.79438591
100.995501894	37.8021717172	24.3941268921
101.004498106	37.8021717172	24.5924873352
101.013494318	37.8021717172	26.0196704865
101.02249053	37.8021717172	28.661775589
101.031486742	37.8021717172	30.6040153503
101.040482955	37.8021717172	30.9740715027
101.049479167	37.8021717172	30.5874843597
101.058475379	37.8021717172	29.7075939178
101.067471591	37.8021717172	25.122959137
101.076467803	37.8021717172	20.9546070099
101.085464015	37.8021717172	16.1878585815
101.094460227	37.8021717172	11.2702941895
101.103456439	37.8021717172	10.650841713
101.112452652	37.8021717172	-13.1018915176
101.121448864	37.8021717172	-28.912027359
101.130445076	37.8021717172	-26.8673534393
101.139441288	37.8021717172	-40.8446578979
101.1484375	37.8021717172	-32.4050445557
101.157433712	37.8021717172	-22.8517913818
101.166429924	37.8021717172	-6.54699420929
101.175426136	37.8021717172	266.744354248
101.184422348	37.8021717172	257.415496826
101.193418561	37.8021717172	293.332397461
101.202414773	37.8021717172	292.808898926
101.211410985	37.8021717172	305.832885742
101.220407197	37.8021717172	312.630340576
101.229403409	37.8021717172	326.415435791
101.238399621	37.8021717172	331.497406006
101.247395833	37.8021717172	377.03894043
101.256392045	37.8021717172	461.112854004
101.265388258	37.8021717172	419.500396729
101.27438447	37.8021717172	438.381958008
101.283380682	37.8021717172	429.932067871
101.292376894	37.8021717172	65.3417434692
101.301373106	37.8021717172	-423.0440979
101.310369318	37.8021717172	-464.993804932
101.31936553	37.8021717172	-415.696838379
101.328361742	37.8021717172	-417.151397705
101.337357955	37.8021717172	-391.86932373
101.346354167	37.8021717172	-363.29977417
101.355350379	37.8021717172	-337.506622314
101.364346591	37.8021717172	-305.017852783
101.373342803	37.8021717172	-286.000854492
101.382339015	37.8021717172	-247.286941528
101.391335227	37.8021717172	-222.789886475
101.400331439	37.8021717172	-207.014083862
101.409327652	37.8021717172	-185.052627563
101.418323864	37.8021717172	-167.5259552
101.427320076	37.8021717172	-154.188247681
101.436316288	37.8021717172	-142.288726807
101.4453125	37.8021717172	-129.364334106
101.454308712	37.8021717172	-116.438156128
101.463304924	37.8021717172	-99.5269546509
101.472301136	37.8021717172	-82.7417526245
101.481297348	37.8021717172	-76.737953186
101.490293561	37.8021717172	-70.8404464722
101.499289773	37.8021717172	-64.1219787598
101.508285985	37.8021717172	-52.4946556091
101.517282197	37.8021717172	-46.8573379517
101.526278409	37.8021717172	-45.1570549011
101.535274621	37.8021717172	-42.3958358765
101.544270833	37.8021717172	-41.7935295105
101.553267045	37.8021717172	-37.7473983765
101.562263258	37.8021717172	-35.0950698853
101.57125947	37.8021717172	-29.936882019
101.580255682	37.8021717172	-26.5798034668
101.589251894	37.8021717172	-25.4194698334
101.598248106	37.8021717172	-22.244222641
101.607244318	37.8021717172	-19.8030529022
101.61624053	37.8021717172	-19.8226547241
101.625236742	37.8021717172	-19.1665458679
101.634232955	37.8021717172	-17.0032653809
101.643229167	37.8021717172	-15.9943809509
101.652225379	37.8021717172	-13.9072246552
101.661221591	37.8021717172	-11.0552787781
101.670217803	37.8021717172	-9.40001869202
101.679214015	37.8021717172	-8.19978904724
101.688210227	37.8021717172	-7.4605050087
101.697206439	37.8021717172	-5.29682207108
101.706202652	37.8021717172	-5.17744827271
101.715198864	37.8021717172	-5.11693716049
101.724195076	37.8021717172	-3.80757808685
101.733191288	37.8021717172	-3.58651661873
101.7421875	37.8021717172	-3.14248156548
101.751183712	37.8021717172	-2.57068228722
101.760179924	37.8021717172	-3.02892947197
101.769176136	37.8021717172	-3.17766475677
101.778172348	37.8021717172	-2.75735759735
101.787168561	37.8021717172	-2.88297629356
101.796164773	37.8021717172	-2.91202354431
101.805160985	37.8021717172	-3.22898793221
101.814157197	37.8021717172	-3.33082962036
101.823153409	37.8021717172	-3.85191845894
101.832149621	37.8021717172	-4.03840494156
101.841145833	37.8021717172	-4.98994159698
101.850142045	37.8021717172	-5.15940570831
101.859138258	37.8021717172	-4.64340114594
101.86813447	37.8021717172	-4.6058511734
101.877130682	37.8021717172	-1.0174959898
101.886126894	37.8021717172	-0.899564146996
101.895123106	37.8021717172	-1.9311170578
101.904119318	37.8021717172	-1.32388460636
101.91311553	37.8021717172	-0.300151854753
101.922111742	37.8021717172	-1.97615540028
101.931107955	37.8021717172	-0.799631953239
101.940104167	37.8021717172	-2.27996444702
101.949100379	37.8021717172	-5.17615509033
101.958096591	37.8021717172	-4.48586797714
101.967092803	37.8021717172	-1.56337177753
101.976089015	37.8021717172	-2.19617795944
101.985085227	37.8021717172	-0.803578674793
101.994081439	37.8021717172	1.6101038456
102.003077652	37.8021717172	0.955560147762
102.012073864	37.8021717172	1.97290217876
102.021070076	37.8021717172	1.00790154934
102.030066288	37.8021717172	0.614765226841
102.0390625	37.8021717172	0.314803570509
102.048058712	37.8021717172	-0.897380292416
102.057054924	37.8021717172	-0.885490715504
102.066051136	37.8021717172	-2.52346563339
102.075047348	37.8021717172	-0.259424626827
102.084043561	37.8021717172	0.490783840418
102.093039773	37.8021717172	1.75618982315
102.102035985	37.8021717172	2.67545986176
102.111032197	37.8021717172	3.05549359322
102.120028409	37.8021717172	3.18613386154
102.129024621	37.8021717172	3.07639575005
102.138020833	37.8021717172	2.14205050468
102.147017045	37.8021717172	1.81743824482
102.156013258	37.8021717172	1.54977369308
102.16500947	37.8021717172	2.85406661034
102.174005682	37.8021717172	2.99058747292
102.183001894	37.8021717172	3.56716656685
102.191998106	37.8021717172	2.29162597656
102.200994318	37.8021717172	2.74257946014
102.20999053	37.8021717172	3.37321448326
102.218986742	37.8021717172	3.87432980537
102.227982955	37.8021717172	3.9239923954
102.236979167	37.8021717172	3.94512629509
102.245975379	37.8021717172	4.31112909317
102.254971591	37.8021717172	4.84681272507
102.263967803	37.8021717172	5.27197313309
102.272964015	37.8021717172	5.46722078323
102.281960227	37.8021717172	6.39672803879
102.290956439	37.8021717172	6.68422079086
102.299952652	37.8021717172	7.09850358963
102.308948864	37.8021717172	7.46531152725
102.317945076	37.8021717172	7.67680883408
102.326941288	37.8021717172	7.51114559174
102.3359375	37.8021717172	7.95817041397
102.344933712	37.8021717172	8.01525211334
102.353929924	37.8021717172	8.42279243469
102.362926136	37.8021717172	8.27986335754
102.371922348	37.8021717172	8.50192546844
102.380918561	37.8021717172	8.76897907257
102.389914773	37.8021717172	9.0238494873
102.398910985	37.8021717172	9.39857196808
102.407907197	37.8021717172	9.02774333954
102.416903409	37.8021717172	8.88294219971
102.425899621	37.8021717172	9.30533790588
102.434895833	37.8021717172	10.1046695709
102.443892045	37.8021717172	9.75538253784
102.452888258	37.8021717172	9.51798343658
102.46188447	37.8021717172	9.96496486664
102.470880682	37.8021717172	9.84039783478
102.479876894	37.8021717172	9.47276592255
102.488873106	37.8021717172	9.61027908325
102.497869318	37.8021717172	10.3976325989
102.50686553	37.8021717172	10.4826517105
102.515861742	37.8021717172	10.6533460617
102.524857955	37.8021717172	11.3028717041
102.533854167	37.8021717172	11.7071418762
99.6280776515	37.7931818182	-1.3404263258
99.6370738636	37.7931818182	-1.43649029732
99.6460700758	37.7931818182	-1.40823233128
99.6550662879	37.7931818182	-1.65413117409
99.6640625	37.7931818182	-1.55767738819
99.6730587121	37.7931818182	-1.68567991257
99.6820549242	37.7931818182	-1.99733889103
99.6910511364	37.7931818182	-0.602629303932
99.7000473485	37.7931818182	0.199737131596
99.7090435606	37.7931818182	0.38939294219
99.7180397727	37.7931818182	-0.00688147498295
99.7270359848	37.7931818182	-0.240758374333
99.736032197	37.7931818182	-0.622829854488
99.7450284091	37.7931818182	-1.34900128841
99.7540246212	37.7931818182	-2.1804997921
99.7630208333	37.7931818182	-1.17979180813
99.7720170455	37.7931818182	-0.284704566002
99.7810132576	37.7931818182	-0.856675863266
99.7900094697	37.7931818182	-1.11708152294
99.7990056818	37.7931818182	-0.580465018749
99.8080018939	37.7931818182	-0.040494337678
99.8169981061	37.7931818182	-0.00687314663082
99.8259943182	37.7931818182	-0.597401440144
99.8349905303	37.7931818182	-0.537469208241
99.8439867424	37.7931818182	-0.794959425926
99.8529829545	37.7931818182	-0.791078150272
99.8619791667	37.7931818182	-0.792005300522
99.8709753788	37.7931818182	-0.780825197697
99.8799715909	37.7931818182	-1.08426761627
99.888967803	37.7931818182	-0.356151223183
99.8979640152	37.7931818182	-0.0438390411437
99.9069602273	37.7931818182	-0.173726037145
99.9159564394	37.7931818182	-0.817454516888
99.9249526515	37.7931818182	-0.923199117184
99.9339488636	37.7931818182	-0.648160755634
99.9429450758	37.7931818182	-0.650813996792
99.9519412879	37.7931818182	-0.20727661252
99.9609375	37.7931818182	-0.937396168709
99.9699337121	37.7931818182	-1.05767607689
99.9789299242	37.7931818182	-0.657507002354
99.9879261364	37.7931818182	-0.839515209198
99.9969223485	37.7931818182	-0.745878219604
100.005918561	37.7931818182	-0.635527312756
100.014914773	37.7931818182	-0.999380528927
100.023910985	37.7931818182	-1.24759352207
100.032907197	37.7931818182	-1.22790277004
100.041903409	37.7931818182	-1.09891855717
100.050899621	37.7931818182	-1.5177090168
100.059895833	37.7931818182	-0.842187583447
100.068892045	37.7931818182	-1.57063734531
100.077888258	37.7931818182	-1.11282467842
100.08688447	37.7931818182	-1.06939661503
100.095880682	37.7931818182	-1.40643894672
100.104876894	37.7931818182	-0.470407485962
100.113873106	37.7931818182	-0.444380819798
100.122869318	37.7931818182	0.455929040909
100.13186553	37.7931818182	0.361788421869
100.140861742	37.7931818182	0.310697585344
100.149857955	37.7931818182	-0.0160308275372
100.158854167	37.7931818182	0.200268983841
100.167850379	37.7931818182	-0.0931584686041
100.176846591	37.7931818182	0.679808974266
100.185842803	37.7931818182	-0.137061089277
100.194839015	37.7931818182	-0.308995187283
100.203835227	37.7931818182	1.53421962261
100.212831439	37.7931818182	0.239977583289
100.221827652	37.7931818182	0.453804045916
100.230823864	37.7931818182	-0.10129018873
100.239820076	37.7931818182	1.20663619041
100.248816288	37.7931818182	2.59696698189
100.2578125	37.7931818182	0.872815430164
100.266808712	37.7931818182	0.536564528942
100.275804924	37.7931818182	-0.714581370354
100.284801136	37.7931818182	-0.473863810301
100.293797348	37.7931818182	-0.143306717277
100.302793561	37.7931818182	0.0233282689005
100.311789773	37.7931818182	-0.0168950874358
100.320785985	37.7931818182	0.519423484802
100.329782197	37.7931818182	0.420693695545
100.338778409	37.7931818182	0.239007607102
100.347774621	37.7931818182	0.00792437419295
100.356770833	37.7931818182	1.02309501171
100.365767045	37.7931818182	-0.710582971573
100.374763258	37.7931818182	0.245310589671
100.38375947	37.7931818182	0.883230566978
100.392755682	37.7931818182	0.842550635338
100.401751894	37.7931818182	1.1502430439
100.410748106	37.7931818182	1.20051062107
100.419744318	37.7931818182	2.05836892128
100.42874053	37.7931818182	1.87851464748
100.437736742	37.7931818182	1.16786408424
100.446732955	37.7931818182	0.962636649609
100.455729167	37.7931818182	2.06324243546
100.464725379	37.7931818182	2.20236372948
100.473721591	37.7931818182	2.8143324852
100.482717803	37.7931818182	2.93669223785
100.491714015	37.7931818182	2.60744142532
100.500710227	37.7931818182	1.93752479553
100.509706439	37.7931818182	1.92929756641
100.518702652	37.7931818182	1.10791563988
100.527698864	37.7931818182	2.06137084961
100.536695076	37.7931818182	1.59454250336
100.545691288	37.7931818182	1.8085963726
100.5546875	37.7931818182	2.28778886795
100.563683712	37.7931818182	2.30619311333
100.572679924	37.7931818182	2.37223958969
100.581676136	37.7931818182	3.03774285316
100.590672348	37.7931818182	2.32988882065
100.599668561	37.7931818182	3.1971449852
100.608664773	37.7931818182	3.64838194847
100.617660985	37.7931818182	3.53272485733
100.626657197	37.7931818182	3.59247732162
100.635653409	37.7931818182	4.1251783371
100.644649621	37.7931818182	4.87127304077
100.653645833	37.7931818182	5.58559703827
100.662642045	37.7931818182	5.20511007309
100.671638258	37.7931818182	4.33284044266
100.68063447	37.7931818182	4.34443807602
100.689630682	37.7931818182	4.66522312164
100.698626894	37.7931818182	5.13080596924
100.707623106	37.7931818182	5.64373064041
100.716619318	37.7931818182	6.04109048843
100.72561553	37.7931818182	5.47161149979
100.734611742	37.7931818182	4.79499721527
100.743607955	37.7931818182	5.56104135513
100.752604167	37.7931818182	6.60764217377
100.761600379	37.7931818182	7.461332798
100.770596591	37.7931818182	9.17513751984
100.779592803	37.7931818182	9.06126213074
100.788589015	37.7931818182	9.3976020813
100.797585227	37.7931818182	9.80090808868
100.806581439	37.7931818182	9.9273109436
100.815577652	37.7931818182	9.97052097321
100.824573864	37.7931818182	10.5788936615
100.833570076	37.7931818182	10.7443237305
100.842566288	37.7931818182	11.3278331757
100.8515625	37.7931818182	11.1189374924
100.860558712	37.7931818182	12.0620317459
100.869554924	37.7931818182	12.5418081284
100.878551136	37.7931818182	12.1982917786
100.887547348	37.7931818182	12.2497310638
100.896543561	37.7931818182	13.751206398
100.905539773	37.7931818182	14.8865537643
100.914535985	37.7931818182	16.5235519409
100.923532197	37.7931818182	17.1189422607
100.932528409	37.7931818182	17.2388210297
100.941524621	37.7931818182	19.2141284943
100.950520833	37.7931818182	20.9827804565
100.959517045	37.7931818182	22.3342189789
100.968513258	37.7931818182	21.8706684113
100.97750947	37.7931818182	25.1537742615
100.986505682	37.7931818182	26.0038337708
100.995501894	37.7931818182	30.2408924103
101.004498106	37.7931818182	31.3424091339
101.013494318	37.7931818182	35.1236801147
101.02249053	37.7931818182	39.8257141113
101.031486742	37.7931818182	41.3236427307
101.040482955	37.7931818182	45.3516426086
101.049479167	37.7931818182	48.9426727295
101.058475379	37.7931818182	49.3570594788
101.067471591	37.7931818182	51.7844734192
101.076467803	37.7931818182	57.0577850342
101.085464015	37.7931818182	62.048034668
101.094460227	37.7931818182	71.3034896851
101.103456439	37.7931818182	71.1768875122
101.112452652	37.7931818182	75.8395843506
101.121448864	37.7931818182	95.2083892822
101.130445076	37.7931818182	52.9796943665
101.139441288	37.7931818182	62.5397338867
101.1484375	37.7931818182	72.9460449219
101.157433712	37.7931818182	-51.1668777466
101.166429924	37.7931818182	206.81791687
101.175426136	37.7931818182	231.716384888
101.184422348	37.7931818182	238.351989746
101.193418561	37.7931818182	280.030548096
101.202414773	37.7931818182	287.587036133
101.211410985	37.7931818182	330.438659668
101.220407197	37.7931818182	353.593475342
101.229403409	37.7931818182	348.186523438
101.238399621	37.7931818182	346.95489502
101.247395833	37.7931818182	379.835235596
101.256392045	37.7931818182	415.097259521
101.265388258	37.7931818182	432.52255249
101.27438447	37.7931818182	436.823425293
101.283380682	37.7931818182	433.545318604
101.292376894	37.7931818182	422.292755127
101.301373106	37.7931818182	419.868896484
101.310369318	37.7931818182	448.623199463
101.31936553	37.7931818182	-216.046585083
101.328361742	37.7931818182	-503.969573975
101.337357955	37.7931818182	-464.510437012
101.346354167	37.7931818182	-429.508148193
101.355350379	37.7931818182	-397.341125488
101.364346591	37.7931818182	-360.029327393
101.373342803	37.7931818182	-325.96585083
101.382339015	37.7931818182	-273.581878662
101.391335227	37.7931818182	-255.22644043
101.400331439	37.7931818182	-234.388641357
101.409327652	37.7931818182	-205.258911133
101.418323864	37.7931818182	-188.715576172
101.427320076	37.7931818182	-157.394577026
101.436316288	37.7931818182	-142.034469604
101.4453125	37.7931818182	-129.555892944
101.454308712	37.7931818182	-113.180747986
101.463304924	37.7931818182	-99.246131897
101.472301136	37.7931818182	-87.411315918
101.481297348	37.7931818182	-80.3699645996
101.490293561	37.7931818182	-71.0938415527
101.499289773	37.7931818182	-63.1761665344
101.508285985	37.7931818182	-53.9664039612
101.517282197	37.7931818182	-46.0096969604
101.526278409	37.7931818182	-43.52759552
101.535274621	37.7931818182	-42.5546836853
101.544270833	37.7931818182	-39.7122383118
101.553267045	37.7931818182	-37.1725120544
101.562263258	37.7931818182	-34.5034484863
101.57125947	37.7931818182	-30.1792182922
101.580255682	37.7931818182	-27.0062103271
101.589251894	37.7931818182	-25.6448955536
101.598248106	37.7931818182	-21.8495769501
101.607244318	37.7931818182	-20.6556167603
101.61624053	37.7931818182	-18.7631053925
101.625236742	37.7931818182	-18.701839447
101.634232955	37.7931818182	-14.0233793259
101.643229167	37.7931818182	-13.4819421768
101.652225379	37.7931818182	-12.9350910187
101.661221591	37.7931818182	-11.0294361115
101.670217803	37.7931818182	-9.74773979187
101.679214015	37.7931818182	-7.91014814377
101.688210227	37.7931818182	-6.6831870079
101.697206439	37.7931818182	-6.03397989273
101.706202652	37.7931818182	-5.45957612991
101.715198864	37.7931818182	-5.10756349564
101.724195076	37.7931818182	-3.43879413605
101.733191288	37.7931818182	-3.12686300278
101.7421875	37.7931818182	-2.38119649887
101.751183712	37.7931818182	-3.06577372551
101.760179924	37.7931818182	-2.80742669106
101.769176136	37.7931818182	-3.08641028404
101.778172348	37.7931818182	-3.97011375427
101.787168561	37.7931818182	-3.84369468689
101.796164773	37.7931818182	-4.04474925995
101.805160985	37.7931818182	-4.040599823
101.814157197	37.7931818182	-3.91095757484
101.823153409	37.7931818182	-4.98834323883
101.832149621	37.7931818182	-3.48262906075
101.841145833	37.7931818182	-6.28320741653
101.850142045	37.7931818182	-4.49267196655
101.859138258	37.7931818182	-2.65391778946
101.86813447	37.7931818182	-1.39326918125
101.877130682	37.7931818182	-1.14638638496
101.886126894	37.7931818182	-0.480159372091
101.895123106	37.7931818182	-2.53053307533
101.904119318	37.7931818182	-2.72910833359
101.91311553	37.7931818182	-0.498500794172
101.922111742	37.7931818182	-2.27983427048
101.931107955	37.7931818182	-1.42259216309
101.940104167	37.7931818182	-2.39003968239
101.949100379	37.7931818182	-6.00386762619
101.958096591	37.7931818182	-4.88089752197
101.967092803	37.7931818182	-2.2593319416
101.976089015	37.7931818182	-1.185338974
101.985085227	37.7931818182	-0.839896321297
101.994081439	37.7931818182	1.0177230835
102.003077652	37.7931818182	1.11367666721
102.012073864	37.7931818182	0.306839317083
102.021070076	37.7931818182	1.00726127625
102.030066288	37.7931818182	0.771822571754
102.0390625	37.7931818182	1.1149302721
102.048058712	37.7931818182	0.891414701939
102.057054924	37.7931818182	-0.660929918289
102.066051136	37.7931818182	-1.47489690781
102.075047348	37.7931818182	-1.30680823326
102.084043561	37.7931818182	0.49900752306
102.093039773	37.7931818182	0.693753659725
102.102035985	37.7931818182	1.85549676418
102.111032197	37.7931818182	1.86391675472
102.120028409	37.7931818182	3.13545846939
102.129024621	37.7931818182	3.14823293686
102.138020833	37.7931818182	2.7941801548
102.147017045	37.7931818182	1.56791245937
102.156013258	37.7931818182	1.19400191307
102.16500947	37.7931818182	2.14820408821
102.174005682	37.7931818182	2.15731835365
102.183001894	37.7931818182	3.63813614845
102.191998106	37.7931818182	2.89630055428
102.200994318	37.7931818182	2.8841574192
102.20999053	37.7931818182	3.12803816795
102.218986742	37.7931818182	2.96465969086
102.227982955	37.7931818182	2.87940692902
102.236979167	37.7931818182	3.32347607613
102.245975379	37.7931818182	3.93172430992
102.254971591	37.7931818182	4.53692626953
102.263967803	37.7931818182	4.93329620361
102.272964015	37.7931818182	5.30798149109
102.281960227	37.7931818182	5.82154417038
102.290956439	37.7931818182	6.14671564102
102.299952652	37.7931818182	6.57237958908
102.308948864	37.7931818182	6.94183492661
102.317945076	37.7931818182	7.28430557251
102.326941288	37.7931818182	7.11026000977
102.3359375	37.7931818182	7.40523433685
102.344933712	37.7931818182	7.484790802
102.353929924	37.7931818182	7.23520565033
102.362926136	37.7931818182	7.84498214722
102.371922348	37.7931818182	8.15134525299
102.380918561	37.7931818182	7.933344841
102.389914773	37.7931818182	8.37062644958
102.398910985	37.7931818182	8.35531044006
102.407907197	37.7931818182	8.05811786652
102.416903409	37.7931818182	8.65001392365
102.425899621	37.7931818182	9.17743587494
102.434895833	37.7931818182	8.87510490417
102.443892045	37.7931818182	8.82488536835
102.452888258	37.7931818182	8.64354705811
102.46188447	37.7931818182	9.78883934021
102.470880682	37.7931818182	10.3419313431
102.479876894	37.7931818182	10.3279685974
102.488873106	37.7931818182	10.5843858719
102.497869318	37.7931818182	10.767911911
102.50686553	37.7931818182	10.8697423935
102.515861742	37.7931818182	11.277639389
102.524857955	37.7931818182	11.6917858124
102.533854167	37.7931818182	11.6234846115
99.6190814394	37.7841919192	2.59109187126
99.6280776515	37.7841919192	-1.9187271595
99.6370738636	37.7841919192	-1.90521132946
99.6460700758	37.7841919192	-2.35319638252
99.6550662879	37.7841919192	-1.73303663731
99.6640625	37.7841919192	-2.00125598907
99.6730587121	37.7841919192	-1.41671538353
99.6820549242	37.7841919192	-1.01987242699
99.6910511364	37.7841919192	0.299299240112
99.7000473485	37.7841919192	0.605120837688
99.7090435606	37.7841919192	0.862886369228
99.7180397727	37.7841919192	0.0473517216742
99.7270359848	37.7841919192	0.240362837911
99.736032197	37.7841919192	1.01481258869
99.7450284091	37.7841919192	0.03639844805
99.7540246212	37.7841919192	0.34865128994
99.7630208333	37.7841919192	0.391365349293
99.7720170455	37.7841919192	-0.685022950172
99.7810132576	37.7841919192	-0.8317232728
99.7900094697	37.7841919192	-1.44597423077
99.7990056818	37.7841919192	-1.5016566515
99.8080018939	37.7841919192	-1.00885784626
99.8169981061	37.7841919192	-0.617913961411
99.8259943182	37.7841919192	-1.1426371336
99.8349905303	37.7841919192	-0.686042070389
99.8439867424	37.7841919192	-1.0918623209
99.8529829545	37.7841919192	-0.52954262495
99.8619791667	37.7841919192	-0.481294631958
99.8709753788	37.7841919192	-0.514576196671
99.8799715909	37.7841919192	0.312091946602
99.888967803	37.7841919192	1.25365149975
99.8979640152	37.7841919192	-0.67285323143
99.9069602273	37.7841919192	0.150936633348
99.9159564394	37.7841919192	0.0513498149812
99.9249526515	37.7841919192	-0.260669529438
99.9339488636	37.7841919192	-0.698985874653
99.9429450758	37.7841919192	-0.801925003529
99.9519412879	37.7841919192	-1.1685141325
99.9609375	37.7841919192	-1.11819791794
99.9699337121	37.7841919192	-0.608611881733
99.9789299242	37.7841919192	-0.996147990227
99.9879261364	37.7841919192	-1.0794467926
99.9969223485	37.7841919192	-1.30902504921
100.005918561	37.7841919192	-1.25311923027
100.014914773	37.7841919192	-0.886457920074
100.023910985	37.7841919192	-0.70390868187
100.032907197	37.7841919192	-1.451597929
100.041903409	37.7841919192	-1.26985812187
100.050899621	37.7841919192	-1.60178089142
100.059895833	37.7841919192	-0.825849294662
100.068892045	37.7841919192	-1.28995919228
100.077888258	37.7841919192	-1.54387903214
100.08688447	37.7841919192	-1.28109204769
100.095880682	37.7841919192	-0.549006104469
100.104876894	37.7841919192	-1.71375060081
100.113873106	37.7841919192	-0.34578359127
100.122869318	37.7841919192	-0.200107768178
100.13186553	37.7841919192	-0.318369269371
100.140861742	37.7841919192	-0.978334724903
100.149857955	37.7841919192	-0.255524724722
100.158854167	37.7841919192	-0.512546122074
100.167850379	37.7841919192	0.0894176959991
100.176846591	37.7841919192	-0.207597360015
100.185842803	37.7841919192	0.1086621508
100.194839015	37.7841919192	-1.7124017477
100.203835227	37.7841919192	-0.365630835295
100.212831439	37.7841919192	-0.734874784946
100.221827652	37.7841919192	-0.431219995022
100.230823864	37.7841919192	-0.623303949833
100.239820076	37.7841919192	-0.357552945614
100.248816288	37.7841919192	-0.416868239641
100.2578125	37.7841919192	0.396679341793
100.266808712	37.7841919192	-0.920112192631
100.275804924	37.7841919192	-0.106489568949
100.284801136	37.7841919192	-0.669467508793
100.293797348	37.7841919192	0.552700936794
100.302793561	37.7841919192	-0.167091012001
100.311789773	37.7841919192	0.267422556877
100.320785985	37.7841919192	-0.389263510704
100.329782197	37.7841919192	-0.186368465424
100.338778409	37.7841919192	-0.843256115913
100.347774621	37.7841919192	-0.636926412582
100.356770833	37.7841919192	0.0794635564089
100.365767045	37.7841919192	0.363595813513
100.374763258	37.7841919192	-0.576920151711
100.38375947	37.7841919192	0.0413602478802
100.392755682	37.7841919192	0.192197278142
100.401751894	37.7841919192	0.257953464985
100.410748106	37.7841919192	0.754445612431
100.419744318	37.7841919192	1.37579965591
100.42874053	37.7841919192	1.25579845905
100.437736742	37.7841919192	1.30392074585
100.446732955	37.7841919192	1.64544689655
100.455729167	37.7841919192	1.76399672031
100.464725379	37.7841919192	2.17217850685
100.473721591	37.7841919192	1.90602099895
100.482717803	37.7841919192	3.78077173233
100.491714015	37.7841919192	3.00678443909
100.500710227	37.7841919192	2.30574822426
100.509706439	37.7841919192	2.53672885895
100.518702652	37.7841919192	2.59761738777
100.527698864	37.7841919192	2.25371289253
100.536695076	37.7841919192	2.03871059418
100.545691288	37.7841919192	2.94707942009
100.5546875	37.7841919192	2.8183195591
100.563683712	37.7841919192	2.95147252083
100.572679924	37.7841919192	2.52171278
100.581676136	37.7841919192	2.33977866173
100.590672348	37.7841919192	2.55461931229
100.599668561	37.7841919192	2.8935816288
100.608664773	37.7841919192	3.42260074615
100.617660985	37.7841919192	3.65709090233
100.626657197	37.7841919192	3.85567760468
100.635653409	37.7841919192	4.53677892685
100.644649621	37.7841919192	5.37412834167
100.653645833	37.7841919192	5.60206651688
100.662642045	37.7841919192	5.8967218399
100.671638258	37.7841919192	5.61206197739
100.68063447	37.7841919192	5.82948112488
100.689630682	37.7841919192	6.06609296799
100.698626894	37.7841919192	4.93853139877
100.707623106	37.7841919192	5.17452192307
100.716619318	37.7841919192	6.47345161438
100.72561553	37.7841919192	5.67775535583
100.734611742	37.7841919192	4.98601961136
100.743607955	37.7841919192	5.60281181335
100.752604167	37.7841919192	6.13348484039
100.761600379	37.7841919192	6.91056919098
100.770596591	37.7841919192	8.35845279694
100.779592803	37.7841919192	8.88142585754
100.788589015	37.7841919192	10.2707118988
100.797585227	37.7841919192	9.78895950317
100.806581439	37.7841919192	10.3483114243
100.815577652	37.7841919192	11.6017694473
100.824573864	37.7841919192	12.1206693649
100.833570076	37.7841919192	12.297249794
100.842566288	37.7841919192	12.626578331
100.8515625	37.7841919192	13.2198200226
100.860558712	37.7841919192	14.1117258072
100.869554924	37.7841919192	14.1570911407
100.878551136	37.7841919192	13.6961708069
100.887547348	37.7841919192	15.0435762405
100.896543561	37.7841919192	15.7233810425
100.905539773	37.7841919192	16.7720432281
100.914535985	37.7841919192	17.2448196411
100.923532197	37.7841919192	19.1792926788
100.932528409	37.7841919192	19.9891891479
100.941524621	37.7841919192	22.101316452
100.950520833	37.7841919192	23.4009971619
100.959517045	37.7841919192	25.0030593872
100.968513258	37.7841919192	25.4432430267
100.97750947	37.7841919192	26.6224899292
100.986505682	37.7841919192	32.1142959595
100.995501894	37.7841919192	34.5383148193
101.004498106	37.7841919192	34.0791740417
101.013494318	37.7841919192	38.7853546143
101.02249053	37.7841919192	42.8754081726
101.031486742	37.7841919192	48.4302177429
101.040482955	37.7841919192	54.6596755981
101.049479167	37.7841919192	59.5464363098
101.058475379	37.7841919192	65.779510498
101.067471591	37.7841919192	68.7974395752
101.076467803	37.7841919192	73.7853240967
101.085464015	37.7841919192	85.5007629395
101.094460227	37.7841919192	95.5082321167
101.103456439	37.7841919192	102.271148682
101.112452652	37.7841919192	107.256126404
101.121448864	37.7841919192	118.921958923
101.130445076	37.7841919192	119.98274231
101.139441288	37.7841919192	139.197402954
101.1484375	37.7841919192	162.35748291
101.157433712	37.7841919192	174.094573975
101.166429924	37.7841919192	198.394607544
101.175426136	37.7841919192	222.248519897
101.184422348	37.7841919192	254.073745728
101.193418561	37.7841919192	289.750946045
101.202414773	37.7841919192	302.061523438
101.211410985	37.7841919192	368.111877441
101.220407197	37.7841919192	369.350250244
101.229403409	37.7841919192	376.377655029
101.238399621	37.7841919192	368.067474365
101.247395833	37.7841919192	403.843841553
101.256392045	37.7841919192	424.527374268
101.265388258	37.7841919192	436.960510254
101.27438447	37.7841919192	445.335693359
101.283380682	37.7841919192	445.086853027
101.292376894	37.7841919192	424.465057373
101.301373106	37.7841919192	438.694122314
101.310369318	37.7841919192	456.558074951
101.31936553	37.7841919192	448.19418335
101.328361742	37.7841919192	478.833129883
101.337357955	37.7841919192	-485.60723877
101.346354167	37.7841919192	-455.557373047
101.355350379	37.7841919192	-436.34954834
101.364346591	37.7841919192	-408.332855225
101.373342803	37.7841919192	-294.385986328
101.382339015	37.7841919192	-290.804992676
101.391335227	37.7841919192	-276.783538818
101.400331439	37.7841919192	-251.57383728
101.409327652	37.7841919192	-219.301025391
101.418323864	37.7841919192	-191.282012939
101.427320076	37.7841919192	-168.558883667
101.436316288	37.7841919192	-150.429336548
101.4453125	37.7841919192	-135.612625122
101.454308712	37.7841919192	-113.21307373
101.463304924	37.7841919192	-99.1739120483
101.472301136	37.7841919192	-98.8819732666
101.481297348	37.7841919192	-81.6264419556
101.490293561	37.7841919192	-71.4273605347
101.499289773	37.7841919192	-63.3640441895
101.508285985	37.7841919192	-52.7727355957
101.517282197	37.7841919192	-44.9523200989
101.526278409	37.7841919192	-41.4225959778
101.535274621	37.7841919192	-39.3692855835
101.544270833	37.7841919192	-37.3233184814
101.553267045	37.7841919192	-34.9363594055
101.562263258	37.7841919192	-32.2326202393
101.57125947	37.7841919192	-29.0091438293
101.580255682	37.7841919192	-26.5761318207
101.589251894	37.7841919192	-24.9558944702
101.598248106	37.7841919192	-20.4764194489
101.607244318	37.7841919192	-18.7060775757
101.61624053	37.7841919192	-16.8502578735
101.625236742	37.7841919192	-14.9310398102
101.634232955	37.7841919192	-14.5587902069
101.643229167	37.7841919192	-11.8922748566
101.652225379	37.7841919192	-11.1177759171
101.661221591	37.7841919192	-9.68148517609
101.670217803	37.7841919192	-8.88483810425
101.679214015	37.7841919192	-6.94528102875
101.688210227	37.7841919192	-6.07630395889
101.697206439	37.7841919192	-5.26805686951
101.706202652	37.7841919192	-4.77578449249
101.715198864	37.7841919192	-3.56944894791
101.724195076	37.7841919192	-3.36896634102
101.733191288	37.7841919192	-2.54882597923
101.7421875	37.7841919192	-3.53312754631
101.751183712	37.7841919192	-2.49155116081
101.760179924	37.7841919192	-2.32841277122
101.769176136	37.7841919192	-2.94585132599
101.778172348	37.7841919192	-4.12526416779
101.787168561	37.7841919192	-4.64392089844
101.796164773	37.7841919192	-5.1131811142
101.805160985	37.7841919192	-3.98274278641
101.814157197	37.7841919192	-4.71768474579
101.823153409	37.7841919192	-5.0377035141
101.832149621	37.7841919192	-4.98399114609
101.841145833	37.7841919192	-4.50601816177
101.850142045	37.7841919192	-2.63146305084
101.859138258	37.7841919192	-1.41997385025
101.86813447	37.7841919192	-0.794789195061
101.877130682	37.7841919192	-3.22645235062
101.886126894	37.7841919192	-1.9872982502
101.895123106	37.7841919192	-2.7170817852
101.904119318	37.7841919192	-5.40821218491
101.91311553	37.7841919192	-3.8438680172
101.922111742	37.7841919192	-3.90192890167
101.931107955	37.7841919192	-3.30739974976
101.940104167	37.7841919192	-3.44177508354
101.949100379	37.7841919192	-2.82193660736
101.958096591	37.7841919192	-3.37018704414
101.967092803	37.7841919192	-1.6411575079
101.976089015	37.7841919192	-1.10180175304
101.985085227	37.7841919192	0.0504530407488
101.994081439	37.7841919192	1.0885874033
102.003077652	37.7841919192	-1.15238857269
102.012073864	37.7841919192	0.755304396152
102.021070076	37.7841919192	-0.0839298814535
102.030066288	37.7841919192	0.442288190126
102.0390625	37.7841919192	0.544178128242
102.048058712	37.7841919192	0.47599285841
102.057054924	37.7841919192	-1.5599642992
102.066051136	37.7841919192	-1.47855627537
102.075047348	37.7841919192	-1.19047498703
102.084043561	37.7841919192	0.0454711988568
102.093039773	37.7841919192	1.05836939812
102.102035985	37.7841919192	2.09135317802
102.111032197	37.7841919192	2.77509355545
102.120028409	37.7841919192	3.73925232887
102.129024621	37.7841919192	2.36148238182
102.138020833	37.7841919192	1.85055291653
102.147017045	37.7841919192	1.05295133591
102.156013258	37.7841919192	0.507142961025
102.16500947	37.7841919192	1.54038774967
102.174005682	37.7841919192	2.11289525032
102.183001894	37.7841919192	2.97593092918
102.191998106	37.7841919192	2.87622690201
102.200994318	37.7841919192	2.14446043968
102.20999053	37.7841919192	1.59605693817
102.218986742	37.7841919192	2.34739947319
102.227982955	37.7841919192	3.50241732597
102.236979167	37.7841919192	3.64691519737
102.245975379	37.7841919192	4.24318504333
102.254971591	37.7841919192	4.73701286316
102.263967803	37.7841919192	5.2065281868
102.272964015	37.7841919192	5.23517656326
102.281960227	37.7841919192	5.52583456039
102.290956439	37.7841919192	6.23031187057
102.299952652	37.7841919192	6.49919128418
102.308948864	37.7841919192	6.45304536819
102.317945076	37.7841919192	7.14673233032
102.326941288	37.7841919192	7.09713125229
102.3359375	37.7841919192	7.32369327545
102.344933712	37.7841919192	7.54812288284
102.353929924	37.7841919192	7.50672531128
102.362926136	37.7841919192	7.72299528122
102.371922348	37.7841919192	7.59419822693
102.380918561	37.7841919192	8.50953102112
102.389914773	37.7841919192	8.40752410889
102.398910985	37.7841919192	8.57309341431
102.407907197	37.7841919192	8.9952917099
102.416903409	37.7841919192	9.20646095276
102.425899621	37.7841919192	8.51688957214
102.434895833	37.7841919192	8.15677452087
102.443892045	37.7841919192	8.04804706573
102.452888258	37.7841919192	8.74630451202
102.46188447	37.7841919192	9.06343650818
102.470880682	37.7841919192	9.64938259125
102.479876894	37.7841919192	9.87665081024
102.488873106	37.7841919192	10.1580715179
102.497869318	37.7841919192	10.6246910095
102.50686553	37.7841919192	10.2417612076
102.515861742	37.7841919192	10.7489900589
102.524857955	37.7841919192	10.9240007401
99.6190814394	37.7752020202	-1.88928818703
99.6280776515	37.7752020202	-1.71096158028
99.6370738636	37.7752020202	-2.07172083855
99.6460700758	37.7752020202	-2.69823861122
99.6550662879	37.7752020202	-2.16185069084
99.6640625	37.7752020202	-1.95557808876
99.6730587121	37.7752020202	-1.51943337917
99.6820549242	37.7752020202	-1.48292589188
99.6910511364	37.7752020202	-0.533416688442
99.7000473485	37.7752020202	-0.457579016685
99.7090435606	37.7752020202	0.746851027012
99.7180397727	37.7752020202	0.448395490646
99.7270359848	37.7752020202	-0.249900847673
99.736032197	37.7752020202	-0.174430623651
99.7450284091	37.7752020202	0.210151419044
99.7540246212	37.7752020202	1.36133015156
99.7630208333	37.7752020202	0.185007542372
99.7720170455	37.7752020202	0.437919676304
99.7810132576	37.7752020202	0.455728322268
99.7900094697	37.7752020202	-0.818598687649
99.7990056818	37.7752020202	-1.3011469841
99.8080018939	37.7752020202	-1.82506787777
99.8169981061	37.7752020202	-1.46821129322
99.8259943182	37.7752020202	-1.78292703629
99.8349905303	37.7752020202	-1.40614056587
99.8439867424	37.7752020202	-1.05303144455
99.8529829545	37.7752020202	-0.257172971964
99.8619791667	37.7752020202	-0.161992192268
99.8709753788	37.7752020202	-0.46124753356
99.8799715909	37.7752020202	-0.134029969573
99.888967803	37.7752020202	-0.242623642087
99.8979640152	37.7752020202	0.471299558878
99.9069602273	37.7752020202	1.23162400723
99.9159564394	37.7752020202	1.17122089863
99.9249526515	37.7752020202	0.506928026676
99.9339488636	37.7752020202	-0.618919551373
99.9429450758	37.7752020202	-0.586914241314
99.9519412879	37.7752020202	-0.50942337513
99.9609375	37.7752020202	-0.798645198345
99.9699337121	37.7752020202	-1.21352791786
99.9789299242	37.7752020202	-0.641329705715
99.9879261364	37.7752020202	-0.458150058985
99.9969223485	37.7752020202	0.0873249843717
100.005918561	37.7752020202	-0.531480193138
100.014914773	37.7752020202	-0.576898992062
100.023910985	37.7752020202	-0.101576976478
100.032907197	37.7752020202	-1.29516935349
100.041903409	37.7752020202	-1.48202466965
100.050899621	37.7752020202	-1.22177803516
100.059895833	37.7752020202	-1.58363723755
100.068892045	37.7752020202	-1.06987798214
100.077888258	37.7752020202	-1.29968810081
100.08688447	37.7752020202	-0.901256263256
100.095880682	37.7752020202	-1.55760192871
100.104876894	37.7752020202	-1.09325563908
100.113873106	37.7752020202	-1.21041429043
100.122869318	37.7752020202	-1.21308469772
100.13186553	37.7752020202	-0.421387374401
100.140861742	37.7752020202	-0.833739995956
100.149857955	37.7752020202	-0.806207895279
100.158854167	37.7752020202	0.60077470541
100.167850379	37.7752020202	-0.744592189789
100.176846591	37.7752020202	-0.761560618877
100.185842803	37.7752020202	-1.42592453957
100.194839015	37.7752020202	-0.799162209034
100.203835227	37.7752020202	-0.935447216034
100.212831439	37.7752020202	-0.453306764364
100.221827652	37.7752020202	-1.01256299019
100.230823864	37.7752020202	-1.75910425186
100.239820076	37.7752020202	-2.11684560776
100.248816288	37.7752020202	-1.13529038429
100.2578125	37.7752020202	-0.318698108196
100.266808712	37.7752020202	-1.55413818359
100.275804924	37.7752020202	-0.978340685368
100.284801136	37.7752020202	-0.572120845318
100.293797348	37.7752020202	-1.4328815937
100.302793561	37.7752020202	-0.958957731724
100.311789773	37.7752020202	0.789119720459
100.320785985	37.7752020202	0.0276071205735
100.329782197	37.7752020202	-0.147744819522
100.338778409	37.7752020202	-0.412107586861
100.347774621	37.7752020202	0.0236922968179
100.356770833	37.7752020202	-0.232540771365
100.365767045	37.7752020202	0.492125630379
100.374763258	37.7752020202	-0.426373422146
100.38375947	37.7752020202	-0.822049915791
100.392755682	37.7752020202	-0.380023092031
100.401751894	37.7752020202	0.352787077427
100.410748106	37.7752020202	0.558145284653
100.419744318	37.7752020202	0.692927241325
100.42874053	37.7752020202	0.823106706142
100.437736742	37.7752020202	1.30632829666
100.446732955	37.7752020202	1.25849151611
100.455729167	37.7752020202	1.26589024067
100.464725379	37.7752020202	1.70257604122
100.473721591	37.7752020202	1.79515147209
100.482717803	37.7752020202	2.63347387314
100.491714015	37.7752020202	3.70438408852
100.500710227	37.7752020202	3.38178157806
100.509706439	37.7752020202	3.31448245049
100.518702652	37.7752020202	2.42408800125
100.527698864	37.7752020202	1.91988146305
100.536695076	37.7752020202	1.92865407467
100.545691288	37.7752020202	2.41157078743
100.5546875	37.7752020202	2.05438327789
100.563683712	37.7752020202	2.12354803085
100.572679924	37.7752020202	2.07243251801
100.581676136	37.7752020202	2.58678722382
100.590672348	37.7752020202	2.39186215401
100.599668561	37.7752020202	2.72095012665
100.608664773	37.7752020202	3.21486878395
100.617660985	37.7752020202	3.40323734283
100.626657197	37.7752020202	4.39469051361
100.635653409	37.7752020202	4.64519262314
100.644649621	37.7752020202	5.10757446289
100.653645833	37.7752020202	5.88856983185
100.662642045	37.7752020202	5.47661781311
100.671638258	37.7752020202	6.12881183624
100.68063447	37.7752020202	6.19389295578
100.689630682	37.7752020202	6.52477216721
100.698626894	37.7752020202	5.50646066666
100.707623106	37.7752020202	5.03353261948
100.716619318	37.7752020202	6.10125780106
100.72561553	37.7752020202	6.95740127563
100.734611742	37.7752020202	5.27356386185
100.743607955	37.7752020202	6.64670753479
100.752604167	37.7752020202	6.54768133163
100.761600379	37.7752020202	7.78562164307
100.770596591	37.7752020202	8.09359741211
100.779592803	37.7752020202	9.74273204803
100.788589015	37.7752020202	11.0606355667
100.797585227	37.7752020202	12.4683866501
100.806581439	37.7752020202	11.9061374664
100.815577652	37.7752020202	12.2977352142
100.824573864	37.7752020202	12.8151321411
